   3.258079       2.982832       4.387587    
   1.416714       5.531734       4.355990    
  -5.169914     -0.4316426       6.495321    
   1.347003     -0.2389156       7.799134    
   2.803779       1.972183      -8.271402    
   1.144447       6.356531     -0.1193551    
   4.394404       3.231030      -7.372952    
   7.718047       2.836023      -3.529779    
   7.185638      -2.866050      0.5001315    
   3.695686      0.8438056      -1.380987    
   1.998290       2.857721       2.482141    
  -5.715382      -2.236707      -2.567771    
   4.711514       6.006555      -3.108809    
   1.069668      -5.102453       3.489076    
  0.6961477      0.5268472      -2.461513    
  0.2433600       1.429438      -8.027500    
  0.5408488       4.154319       3.744794    
  -7.278995      -2.936529       5.272611    
 -0.1715388       2.924535      -1.618718    
  -1.274073      -1.716447      -3.105565    
  -6.459378      -5.287706       3.682582    
  -5.025072       4.707961       6.107885    
  0.3135039      -4.631857       7.249977    
  -4.907938      -3.089240      -3.721179    
  -5.497223       6.505855      0.4691325    
   4.982634       7.165203     -0.8587660    
   3.512058       3.243581      -2.782406    
  -4.391853     -0.7771764       1.434956    
  -5.856725      0.9702433      -4.203932    
  -3.194454       4.431656      -7.030818    
  -4.170550       4.730301       4.746199    
  -4.623735      -4.114914     -0.5896254    
   2.504273      -2.961865       1.734222    
   6.177489       1.314750      -3.512569    
  -4.445926       1.111337      -3.807589    
   1.265936       4.301096      -1.465838    
   3.878176     -0.2021730      -3.482976    
  -6.126479      -3.619372     -0.9420319    
 -0.3420588       8.770837      -4.037035    
  0.5112525       1.239246      -2.085859    
  0.4996397     -0.4030270      -7.109449    
  -5.788927       3.323966       2.670974    
  -5.357107      -2.879545      -3.125494    
   7.918712       3.375868      -1.862190    
  -7.516189      -5.756139       1.548507    
  -7.191304      -2.535503      -4.081264    
 -0.4534746       1.274986      -7.257668    
   4.341906      -2.659963       6.031328    
   7.435081       5.997201      0.6997035    
  -5.902206       5.411757      -2.913917    
  -2.684227      -7.197966      -5.792595    
  -7.903279      -5.002368       2.266538    
  0.4189299       3.391451      -3.342080    
   2.575617       7.472164       2.875272    
   3.888570      -8.161812      0.6279373    
   2.628536       4.935041       4.939187    
  -4.698287      -5.589679     -0.5909670    
 -0.3650329      -5.569542     -0.8850094    
   6.425706      -1.389270       5.053658    
   2.845336       6.923250      -2.463269    
   3.457937       6.396851      -3.847788    
   3.261717       4.418010       6.810866    
  -6.221018      -5.435682       2.151788    
   5.140139      -1.312685       5.533289    
  -6.507772      -3.144105      -1.790912    
  -5.649980       2.658492      -6.318357    
   2.373560       7.896811     -0.3905821    
  0.7027228      -1.812768      -7.868578    
  -8.969061      -1.681256       1.485896    
   2.552794      -2.375943       1.753470    
  -3.341092      0.4029968       7.742169    
  -1.159140       3.419657       2.510893    
 -0.2183141       9.617730     -0.6644851    
   2.802651      -1.959860      -5.342498    
  -3.119415       3.032137       5.093641    
   4.806280       3.896326       4.174263    
  -3.169009      -5.565533      -5.080467    
   1.921028      -3.817390       7.641523    
  -2.111315      2.8374357E-02   6.852709    
  -2.987257       5.714450       2.159317    
   6.476757       2.848506      -3.060877    
  1.8971244E-02   1.404232      -7.194086    
 -0.6232338       5.134425      -4.850853    
  -4.266739       5.365786       5.855027    
  -2.477665      -4.136488       3.511997    
  -3.745949       4.602799      -5.566644    
  -4.927700      -2.583539      -8.130210    
   5.446303      -1.851935     -0.8886055    
   1.054334       5.707515      -1.402999    
   1.007397      -3.917423      -3.895072    
   2.134158      -7.099187      -5.788294    
  -1.888932      -2.042309       5.632816    
  -5.495018       5.292416       3.232475    
   3.335879       3.706189      -5.856908    
  -5.715407       3.186685      -5.939151    
   2.946124     -7.4496180E-02  -9.219239    
   6.667441      -5.939422      -3.166452    
   1.512788       8.249917       2.804596    
   8.412023      -3.821217       1.106443    
   6.254118       5.473626       3.095992    
  -1.408048      -3.835439       1.646288    
  -3.622140      -4.628161       1.815969    
 -0.5550417      -3.887010      -7.124186    
   5.722737      -5.350298      0.7914174    
   4.683250     -0.8144928      0.2281709    
  0.1753540      -5.678864      -4.704148    
  -1.885911     -0.6339239      -6.426994    
  -1.523097      -4.544801      -8.148663    
   0.000000       0.000000       9.990000    
  0.7813901      6.1496742E-02   9.959204    
  0.7741565      0.1226143       9.959204    
  0.7621498      0.1829760       9.959204    
  0.7454441      0.2422095       9.959204    
  0.7241427      0.2999497       9.959204    
  0.6983766      0.3558407       9.959204    
  0.6683048      0.4095377       9.959204    
  0.6341127      0.4607098       9.959204    
  0.5960110      0.5090415       9.959204    
  0.5542348      0.5542349       9.959204    
  0.5090415      0.5960111       9.959204    
  0.4607098      0.6341127       9.959204    
  0.4095376      0.6683048       9.959204    
  0.3558406      0.6983766       9.959204    
  0.2999497      0.7241427       9.959204    
  0.2422095      0.7454442       9.959204    
  0.1829759      0.7621498       9.959204    
  0.1226144      0.7741565       9.959204    
  6.1496731E-02  0.7813901       9.959204    
 -3.4261266E-08  0.7838064       9.959204    
 -6.1496802E-02  0.7813901       9.959204    
 -0.1226144      0.7741564       9.959204    
 -0.1829760      0.7621498       9.959204    
 -0.2422095      0.7454441       9.959204    
 -0.2999498      0.7241427       9.959204    
 -0.3558407      0.6983765       9.959204    
 -0.4095378      0.6683047       9.959204    
 -0.4607100      0.6341126       9.959204    
 -0.5090415      0.5960110       9.959204    
 -0.5542348      0.5542348       9.959204    
 -0.5960110      0.5090415       9.959204    
 -0.6341127      0.4607098       9.959204    
 -0.6683049      0.4095376       9.959204    
 -0.6983767      0.3558406       9.959204    
 -0.7241427      0.2999496       9.959204    
 -0.7454441      0.2422095       9.959204    
 -0.7621498      0.1829760       9.959204    
 -0.7741565      0.1226143       9.959204    
 -0.7813902      6.1496697E-02   9.959204    
 -0.7838064     -6.8522532E-08   9.959204    
 -0.7813902     -6.1496649E-02   9.959204    
 -0.7741564     -0.1226144       9.959204    
 -0.7621498     -0.1829759       9.959204    
 -0.7454441     -0.2422097       9.959204    
 -0.7241427     -0.2999497       9.959204    
 -0.6983766     -0.3558407       9.959204    
 -0.6683048     -0.4095377       9.959204    
 -0.6341127     -0.4607099       9.959204    
 -0.5960110     -0.5090416       9.959204    
 -0.5542347     -0.5542349       9.959204    
 -0.5090414     -0.5960112       9.959204    
 -0.4607097     -0.6341128       9.959204    
 -0.4095379     -0.6683047       9.959204    
 -0.3558404     -0.6983767       9.959204    
 -0.2999498     -0.7241427       9.959204    
 -0.2422092     -0.7454442       9.959204    
 -0.1829760     -0.7621498       9.959204    
 -0.1226144     -0.7741564       9.959204    
 -6.1496753E-02 -0.7813901       9.959204    
  9.3467980E-09 -0.7838064       9.959204    
  6.1496772E-02 -0.7813901       9.959204    
  0.1226144     -0.7741564       9.959204    
  0.1829761     -0.7621498       9.959204    
  0.2422096     -0.7454441       9.959204    
  0.2999499     -0.7241426       9.959204    
  0.3558408     -0.6983765       9.959204    
  0.4095379     -0.6683047       9.959204    
  0.4607100     -0.6341125       9.959204    
  0.5090417     -0.5960109       9.959204    
  0.5542350     -0.5542346       9.959204    
  0.5960112     -0.5090413       9.959204    
  0.6341127     -0.4607099       9.959204    
  0.6683050     -0.4095374       9.959204    
  0.6983766     -0.3558407       9.959204    
  0.7241428     -0.2999493       9.959204    
  0.7454442     -0.2422094       9.959204    
  0.7621498     -0.1829759       9.959204    
  0.7741565     -0.1226142       9.959204    
  0.7813902     -6.1496627E-02   9.959204    
  0.7838064      1.3704506E-07   9.959204    
   1.557963      0.1226143       9.867006    
   1.543540      0.2444727       9.867006    
   1.519601      0.3648238       9.867006    
   1.486292      0.4829257       9.867006    
   1.443821      0.5980502       9.867006    
   1.392447      0.7094875       9.867006    
   1.332489      0.8165506       9.867006    
   1.264316      0.9185792       9.867006    
   1.188347       1.014945       9.867006    
   1.105053       1.105053       9.867006    
   1.014945       1.188348       9.867006    
  0.9185792       1.264316       9.867006    
  0.8165504       1.332489       9.867006    
  0.7094873       1.392447       9.867006    
  0.5980502       1.443821       9.867006    
  0.4829257       1.486292       9.867006    
  0.3648237       1.519601       9.867006    
  0.2444728       1.543540       9.867006    
  0.1226143       1.557963       9.867006    
 -6.8311302E-08   1.562780       9.867006    
 -0.1226145       1.557963       9.867006    
 -0.2444729       1.543540       9.867006    
 -0.3648238       1.519601       9.867006    
 -0.4829257       1.486292       9.867006    
 -0.5980503       1.443821       9.867006    
 -0.7094876       1.392447       9.867006    
 -0.8165507       1.332489       9.867006    
 -0.9185795       1.264316       9.867006    
  -1.014945       1.188347       9.867006    
  -1.105053       1.105053       9.867006    
  -1.188347       1.014945       9.867006    
  -1.264316      0.9185792       9.867006    
  -1.332489      0.8165504       9.867006    
  -1.392448      0.7094873       9.867006    
  -1.443821      0.5980499       9.867006    
  -1.486292      0.4829257       9.867006    
  -1.519601      0.3648238       9.867006    
  -1.543540      0.2444727       9.867006    
  -1.557963      0.1226142       9.867006    
  -1.562780     -1.3662260E-07   9.867006    
  -1.557963     -0.1226142       9.867006    
  -1.543540     -0.2444729       9.867006    
  -1.519601     -0.3648238       9.867006    
  -1.486292     -0.4829260       9.867006    
  -1.443821     -0.5980502       9.867006    
  -1.392447     -0.7094875       9.867006    
  -1.332489     -0.8165506       9.867006    
  -1.264316     -0.9185795       9.867006    
  -1.188347      -1.014945       9.867006    
  -1.105052      -1.105053       9.867006    
  -1.014944      -1.188348       9.867006    
 -0.9185790      -1.264316       9.867006    
 -0.8165507      -1.332489       9.867006    
 -0.7094870      -1.392448       9.867006    
 -0.5980504      -1.443821       9.867006    
 -0.4829251      -1.486293       9.867006    
 -0.3648240      -1.519601       9.867006    
 -0.2444728      -1.543540       9.867006    
 -0.1226144      -1.557963       9.867006    
  1.8635969E-08  -1.562780       9.867006    
  0.1226144      -1.557963       9.867006    
  0.2444728      -1.543540       9.867006    
  0.3648240      -1.519601       9.867006    
  0.4829259      -1.486292       9.867006    
  0.5980504      -1.443821       9.867006    
  0.7094877      -1.392447       9.867006    
  0.8165509      -1.332489       9.867006    
  0.9185796      -1.264316       9.867006    
   1.014945      -1.188347       9.867006    
   1.105053      -1.105052       9.867006    
   1.188348      -1.014944       9.867006    
   1.264316     -0.9185793       9.867006    
   1.332490     -0.8165499       9.867006    
   1.392447     -0.7094875       9.867006    
   1.443821     -0.5980495       9.867006    
   1.486292     -0.4829256       9.867006    
   1.519601     -0.3648237       9.867006    
   1.543540     -0.2444725       9.867006    
   1.557963     -0.1226141       9.867006    
   1.562780      2.7324521E-07   9.867006    
   2.324930      0.1829760       9.713975    
   2.303407      0.3648238       9.713975    
   2.267683      0.5444224       9.713975    
   2.217977      0.7206645       9.713975    
   2.154597      0.8924634       9.713975    
   2.077934       1.058760       9.713975    
   1.988459       1.218529       9.713975    
   1.886724       1.370785       9.713975    
   1.773357       1.514590       9.713975    
   1.649057       1.649057       9.713975    
   1.514590       1.773358       9.713975    
   1.370785       1.886724       9.713975    
   1.218529       1.988459       9.713975    
   1.058760       2.077934       9.713975    
  0.8924634       2.154597       9.713975    
  0.7206644       2.217977       9.713975    
  0.5444223       2.267683       9.713975    
  0.3648239       2.303407       9.713975    
  0.1829759       2.324930       9.713975    
 -1.0194017E-07   2.332119       9.713975    
 -0.1829761       2.324930       9.713975    
 -0.3648241       2.303407       9.713975    
 -0.5444224       2.267683       9.713975    
 -0.7206646       2.217977       9.713975    
 -0.8924636       2.154597       9.713975    
  -1.058760       2.077933       9.713975    
  -1.218529       1.988458       9.713975    
  -1.370786       1.886724       9.713975    
  -1.514590       1.773357       9.713975    
  -1.649057       1.649057       9.713975    
  -1.773357       1.514590       9.713975    
  -1.886724       1.370785       9.713975    
  -1.988459       1.218529       9.713975    
  -2.077934       1.058760       9.713975    
  -2.154597      0.8924630       9.713975    
  -2.217977      0.7206646       9.713975    
  -2.267683      0.5444224       9.713975    
  -2.303407      0.3648238       9.713975    
  -2.324930      0.1829758       9.713975    
  -2.332119     -2.0388033E-07   9.713975    
  -2.324930     -0.1829757       9.713975    
  -2.303407     -0.3648242       9.713975    
  -2.267683     -0.5444223       9.713975    
  -2.217977     -0.7206650       9.713975    
  -2.154597     -0.8924634       9.713975    
  -2.077934      -1.058760       9.713975    
  -1.988459      -1.218529       9.713975    
  -1.886724      -1.370786       9.713975    
  -1.773357      -1.514591       9.713975    
  -1.649057      -1.649058       9.713975    
  -1.514590      -1.773358       9.713975    
  -1.370785      -1.886724       9.713975    
  -1.218529      -1.988458       9.713975    
  -1.058759      -2.077934       9.713975    
 -0.8924637      -2.154597       9.713975    
 -0.7206637      -2.217977       9.713975    
 -0.5444226      -2.267683       9.713975    
 -0.3648240      -2.303407       9.713975    
 -0.1829760      -2.324930       9.713975    
  2.7810243E-08  -2.332119       9.713975    
  0.1829761      -2.324930       9.713975    
  0.3648240      -2.303407       9.713975    
  0.5444227      -2.267683       9.713975    
  0.7206648      -2.217977       9.713975    
  0.8924638      -2.154597       9.713975    
   1.058760      -2.077933       9.713975    
   1.218529      -1.988458       9.713975    
   1.370786      -1.886724       9.713975    
   1.514591      -1.773357       9.713975    
   1.649058      -1.649057       9.713975    
   1.773358      -1.514590       9.713975    
   1.886724      -1.370785       9.713975    
   1.988459      -1.218528       9.713975    
   2.077934      -1.058760       9.713975    
   2.154598     -0.8924623       9.713975    
   2.217977     -0.7206644       9.713975    
   2.267683     -0.5444223       9.713975    
   2.303407     -0.3648236       9.713975    
   2.324930     -0.1829756       9.713975    
   2.332119      4.0776067E-07   9.713975    
   3.077563      0.2422095       9.501054    
   3.049073      0.4829257       9.501054    
   3.001783      0.7206645       9.501054    
   2.935987      0.9539601       9.501054    
   2.852090       1.181374       9.501054    
   2.750608       1.401505       9.501054    
   2.632168       1.612995       9.501054    
   2.497500       1.814540       9.501054    
   2.347434       2.004898       9.501054    
   2.182895       2.182895       9.501054    
   2.004898       2.347434       9.501054    
   1.814540       2.497500       9.501054    
   1.612995       2.632168       9.501054    
   1.401505       2.750608       9.501054    
   1.181374       2.852090       9.501054    
  0.9539601       2.935987       9.501054    
  0.7206643       3.001783       9.501054    
  0.4829257       3.049073       9.501054    
  0.2422094       3.077563       9.501054    
 -1.3494054E-07   3.087080       9.501054    
 -0.2422097       3.077563       9.501054    
 -0.4829260       3.049073       9.501054    
 -0.7206645       3.001783       9.501054    
 -0.9539602       2.935987       9.501054    
  -1.181375       2.852090       9.501054    
  -1.401505       2.750608       9.501054    
  -1.612995       2.632168       9.501054    
  -1.814541       2.497500       9.501054    
  -2.004898       2.347434       9.501054    
  -2.182895       2.182895       9.501054    
  -2.347434       2.004898       9.501054    
  -2.497500       1.814540       9.501054    
  -2.632168       1.612995       9.501054    
  -2.750608       1.401505       9.501054    
  -2.852090       1.181374       9.501054    
  -2.935987      0.9539602       9.501054    
  -3.001783      0.7206645       9.501054    
  -3.049073      0.4829256       9.501054    
  -3.077564      0.2422093       9.501054    
  -3.087080     -2.6988107E-07   9.501054    
  -3.077564     -0.2422091       9.501054    
  -3.049073     -0.4829261       9.501054    
  -3.001783     -0.7206643       9.501054    
  -2.935987     -0.9539608       9.501054    
  -2.852090      -1.181374       9.501054    
  -2.750608      -1.401505       9.501054    
  -2.632168      -1.612995       9.501054    
  -2.497500      -1.814540       9.501054    
  -2.347434      -2.004898       9.501054    
  -2.182895      -2.182895       9.501054    
  -2.004898      -2.347434       9.501054    
  -1.814539      -2.497500       9.501054    
  -1.612995      -2.632168       9.501054    
  -1.401504      -2.750609       9.501054    
  -1.181375      -2.852090       9.501054    
 -0.9539590      -2.935987       9.501054    
 -0.7206647      -3.001783       9.501054    
 -0.4829258      -3.049073       9.501054    
 -0.2422095      -3.077563       9.501054    
  3.6813059E-08  -3.087080       9.501054    
  0.2422096      -3.077563       9.501054    
  0.4829259      -3.049073       9.501054    
  0.7206648      -3.001783       9.501054    
  0.9539605      -2.935987       9.501054    
   1.181375      -2.852090       9.501054    
   1.401505      -2.750608       9.501054    
   1.612995      -2.632168       9.501054    
   1.814541      -2.497499       9.501054    
   2.004899      -2.347433       9.501054    
   2.182896      -2.182894       9.501054    
   2.347435      -2.004897       9.501054    
   2.497500      -1.814540       9.501054    
   2.632169      -1.612994       9.501054    
   2.750608      -1.401505       9.501054    
   2.852090      -1.181373       9.501054    
   2.935987     -0.9539599       9.501054    
   3.001783     -0.7206642       9.501054    
   3.049073     -0.4829253       9.501054    
   3.077564     -0.2422090       9.501054    
   3.087080      5.3976214E-07   9.501054    
   3.811222      0.2999497       9.229557    
   3.775940      0.5980502       9.229557    
   3.717377      0.8924634       9.229557    
   3.635896       1.181374       9.229557    
   3.531999       1.463002       9.229557    
   3.406325       1.735609       9.229557    
   3.259650       1.997516       9.229557    
   3.092878       2.247108       9.229557    
   2.907038       2.482845       9.229557    
   2.703274       2.703275       9.229557    
   2.482845       2.907038       9.229557    
   2.247108       3.092878       9.229557    
   1.997516       3.259650       9.229557    
   1.735609       3.406325       9.229557    
   1.463002       3.531999       9.229557    
   1.181374       3.635896       9.229557    
  0.8924631       3.717377       9.229557    
  0.5980502       3.775940       9.229557    
  0.2999497       3.811222       9.229557    
 -1.6710896E-07   3.823008       9.229557    
 -0.2999500       3.811222       9.229557    
 -0.5980505       3.775940       9.229557    
 -0.8924634       3.717377       9.229557    
  -1.181374       3.635896       9.229557    
  -1.463002       3.531998       9.229557    
  -1.735610       3.406324       9.229557    
  -1.997516       3.259650       9.229557    
  -2.247108       3.092878       9.229557    
  -2.482845       2.907038       9.229557    
  -2.703274       2.703274       9.229557    
  -2.907038       2.482845       9.229557    
  -3.092878       2.247107       9.229557    
  -3.259650       1.997516       9.229557    
  -3.406325       1.735609       9.229557    
  -3.531999       1.463001       9.229557    
  -3.635896       1.181374       9.229557    
  -3.717377      0.8924634       9.229557    
  -3.775940      0.5980501       9.229557    
  -3.811223      0.2999495       9.229557    
  -3.823008     -3.3421793E-07   9.229557    
  -3.811223     -0.2999493       9.229557    
  -3.775940     -0.5980507       9.229557    
  -3.717377     -0.8924632       9.229557    
  -3.635896      -1.181375       9.229557    
  -3.531999      -1.463002       9.229557    
  -3.406325      -1.735609       9.229557    
  -3.259650      -1.997516       9.229557    
  -3.092878      -2.247108       9.229557    
  -2.907037      -2.482845       9.229557    
  -2.703274      -2.703275       9.229557    
  -2.482844      -2.907038       9.229557    
  -2.247107      -3.092879       9.229557    
  -1.997517      -3.259649       9.229557    
  -1.735608      -3.406325       9.229557    
  -1.463002      -3.531998       9.229557    
  -1.181373      -3.635897       9.229557    
 -0.8924637      -3.717377       9.229557    
 -0.5980504      -3.775940       9.229557    
 -0.2999498      -3.811222       9.229557    
  4.5588909E-08  -3.823008       9.229557    
  0.2999499      -3.811222       9.229557    
  0.5980504      -3.775940       9.229557    
  0.8924638      -3.717377       9.229557    
   1.181375      -3.635896       9.229557    
   1.463002      -3.531998       9.229557    
   1.735610      -3.406324       9.229557    
   1.997517      -3.259649       9.229557    
   2.247108      -3.092877       9.229557    
   2.482846      -2.907037       9.229557    
   2.703275      -2.703274       9.229557    
   2.907039      -2.482844       9.229557    
   3.092878      -2.247108       9.229557    
   3.259651      -1.997514       9.229557    
   3.406325      -1.735609       9.229557    
   3.531999      -1.463000       9.229557    
   3.635896      -1.181374       9.229557    
   3.717377     -0.8924631       9.229557    
   3.775940     -0.5980498       9.229557    
   3.811223     -0.2999492       9.229557    
   3.823008      6.6843586E-07   9.229557    
   4.521384      0.3558407       8.901155    
   4.479527      0.7094874       8.901155    
   4.410053       1.058760       8.901155    
   4.313388       1.401505       8.901155    
   4.190131       1.735609       8.901155    
   4.041040       2.059013       8.901155    
   3.867034       2.369722       8.901155    
   3.669188       2.665821       8.901155    
   3.448719       2.945484       8.901155    
   3.206987       3.206988       8.901155    
   2.945484       3.448719       8.901155    
   2.665821       3.669188       8.901155    
   2.369721       3.867034       8.901155    
   2.059012       4.041040       8.901155    
   1.735609       4.190131       8.901155    
   1.401505       4.313389       8.901155    
   1.058760       4.410053       8.901155    
  0.7094876       4.479527       8.901155    
  0.3558406       4.521384       8.901155    
 -1.9824711E-07   4.535365       8.901155    
 -0.3558410       4.521384       8.901155    
 -0.7094879       4.479527       8.901155    
  -1.058760       4.410053       8.901155    
  -1.401505       4.313388       8.901155    
  -1.735609       4.190131       8.901155    
  -2.059013       4.041039       8.901155    
  -2.369722       3.867034       8.901155    
  -2.665822       3.669187       8.901155    
  -2.945484       3.448719       8.901155    
  -3.206987       3.206987       8.901155    
  -3.448719       2.945484       8.901155    
  -3.669188       2.665820       8.901155    
  -3.867035       2.369721       8.901155    
  -4.041040       2.059012       8.901155    
  -4.190131       1.735608       8.901155    
  -4.313388       1.401505       8.901155    
  -4.410053       1.058760       8.901155    
  -4.479527      0.7094873       8.901155    
  -4.521384      0.3558404       8.901155    
  -4.535365     -3.9649422E-07   8.901155    
  -4.521384     -0.3558401       8.901155    
  -4.479527     -0.7094881       8.901155    
  -4.410053      -1.058760       8.901155    
  -4.313388      -1.401506       8.901155    
  -4.190131      -1.735609       8.901155    
  -4.041040      -2.059013       8.901155    
  -3.867034      -2.369722       8.901155    
  -3.669187      -2.665821       8.901155    
  -3.448718      -2.945484       8.901155    
  -3.206987      -3.206988       8.901155    
  -2.945483      -3.448719       8.901155    
  -2.665820      -3.669188       8.901155    
  -2.369723      -3.867034       8.901155    
  -2.059011      -4.041040       8.901155    
  -1.735610      -4.190131       8.901155    
  -1.401503      -4.313389       8.901155    
  -1.058760      -4.410053       8.901155    
 -0.7094877      -4.479527       8.901155    
 -0.3558407      -4.521384       8.901155    
  5.4083689E-08  -4.535365       8.901155    
  0.3558408      -4.521384       8.901155    
  0.7094877      -4.479527       8.901155    
   1.058760      -4.410053       8.901155    
   1.401505      -4.313388       8.901155    
   1.735610      -4.190131       8.901155    
   2.059013      -4.041039       8.901155    
   2.369723      -3.867034       8.901155    
   2.665822      -3.669187       8.901155    
   2.945485      -3.448718       8.901155    
   3.206988      -3.206986       8.901155    
   3.448720      -2.945483       8.901155    
   3.669187      -2.665821       8.901155    
   3.867035      -2.369720       8.901155    
   4.041040      -2.059013       8.901155    
   4.190132      -1.735607       8.901155    
   4.313389      -1.401505       8.901155    
   4.410053      -1.058760       8.901155    
   4.479527     -0.7094869       8.901155    
   4.521384     -0.3558400       8.901155    
   4.535365      7.9298843E-07   8.901155    
   5.203670      0.4095377       8.517875    
   5.155497      0.8165506       8.517875    
   5.075539       1.218529       8.517875    
   4.964287       1.612995       8.517875    
   4.822431       1.997516       8.517875    
   4.650841       2.369722       8.517875    
   4.450578       2.727318       8.517875    
   4.222875       3.068099       8.517875    
   3.969137       3.389963       8.517875    
   3.690928       3.690928       8.517875    
   3.389963       3.969138       8.517875    
   3.068099       4.222875       8.517875    
   2.727317       4.450578       8.517875    
   2.369721       4.650841       8.517875    
   1.997516       4.822431       8.517875    
   1.612995       4.964288       8.517875    
   1.218529       5.075539       8.517875    
  0.8165506       5.155497       8.517875    
  0.4095377       5.203670       8.517875    
 -2.2816299E-07   5.219761       8.517875    
 -0.4095381       5.203670       8.517875    
 -0.8165510       5.155497       8.517875    
  -1.218529       5.075539       8.517875    
  -1.612995       4.964287       8.517875    
  -1.997516       4.822430       8.517875    
  -2.369722       4.650841       8.517875    
  -2.727318       4.450577       8.517875    
  -3.068099       4.222875       8.517875    
  -3.389963       3.969137       8.517875    
  -3.690928       3.690928       8.517875    
  -3.969137       3.389963       8.517875    
  -4.222875       3.068098       8.517875    
  -4.450578       2.727317       8.517875    
  -4.650841       2.369721       8.517875    
  -4.822431       1.997515       8.517875    
  -4.964287       1.612995       8.517875    
  -5.075539       1.218529       8.517875    
  -5.155497      0.8165504       8.517875    
  -5.203671      0.4095374       8.517875    
  -5.219761     -4.5632598E-07   8.517875    
  -5.203671     -0.4095371       8.517875    
  -5.155497     -0.8165513       8.517875    
  -5.075539      -1.218529       8.517875    
  -4.964287      -1.612996       8.517875    
  -4.822431      -1.997516       8.517875    
  -4.650841      -2.369722       8.517875    
  -4.450578      -2.727318       8.517875    
  -4.222875      -3.068099       8.517875    
  -3.969137      -3.389964       8.517875    
  -3.690928      -3.690929       8.517875    
  -3.389963      -3.969138       8.517875    
  -3.068098      -4.222876       8.517875    
  -2.727319      -4.450577       8.517875    
  -2.369720      -4.650842       8.517875    
  -1.997517      -4.822430       8.517875    
  -1.612993      -4.964288       8.517875    
  -1.218529      -5.075539       8.517875    
 -0.8165508      -5.155497       8.517875    
 -0.4095378      -5.203670       8.517875    
  6.2245029E-08  -5.219761       8.517875    
  0.4095379      -5.203670       8.517875    
  0.8165509      -5.155497       8.517875    
   1.218529      -5.075539       8.517875    
   1.612996      -4.964287       8.517875    
   1.997517      -4.822430       8.517875    
   2.369723      -4.650840       8.517875    
   2.727319      -4.450577       8.517875    
   3.068100      -4.222874       8.517875    
   3.389965      -3.969136       8.517875    
   3.690929      -3.690927       8.517875    
   3.969139      -3.389962       8.517875    
   4.222875      -3.068099       8.517875    
   4.450579      -2.727316       8.517875    
   4.650841      -2.369722       8.517875    
   4.822432      -1.997514       8.517875    
   4.964288      -1.612995       8.517875    
   5.075539      -1.218529       8.517875    
   5.155497     -0.8165500       8.517875    
   5.203671     -0.4095370       8.517875    
   5.219761      9.1265196E-07   8.517875    
   5.853873      0.4607098       8.082080    
   5.799681      0.9185793       8.082080    
   5.709731       1.370785       8.082080    
   5.584579       1.814540       8.082080    
   5.424997       2.247108       8.082080    
   5.231967       2.665821       8.082080    
   5.006681       3.068099       8.082080    
   4.750527       3.451460       8.082080    
   4.465085       3.813542       8.082080    
   4.152113       4.152113       8.082080    
   3.813542       4.465085       8.082080    
   3.451460       4.750527       8.082080    
   3.068098       5.006681       8.082080    
   2.665820       5.231967       8.082080    
   2.247107       5.424997       8.082080    
   1.814540       5.584580       8.082080    
   1.370785       5.709731       8.082080    
  0.9185793       5.799681       8.082080    
  0.4607098       5.853873       8.082080    
 -2.5667217E-07   5.871974       8.082080    
 -0.4607103       5.853873       8.082080    
 -0.9185798       5.799681       8.082080    
  -1.370785       5.709731       8.082080    
  -1.814540       5.584579       8.082080    
  -2.247108       5.424997       8.082080    
  -2.665821       5.231967       8.082080    
  -3.068099       5.006681       8.082080    
  -3.451461       4.750526       8.082080    
  -3.813542       4.465085       8.082080    
  -4.152113       4.152113       8.082080    
  -4.465085       3.813542       8.082080    
  -4.750527       3.451460       8.082080    
  -5.006681       3.068098       8.082080    
  -5.231968       2.665820       8.082080    
  -5.424997       2.247106       8.082080    
  -5.584579       1.814540       8.082080    
  -5.709731       1.370785       8.082080    
  -5.799681      0.9185791       8.082080    
  -5.853873      0.4607095       8.082080    
  -5.871974     -5.1334433E-07   8.082080    
  -5.853873     -0.4607091       8.082080    
  -5.799681     -0.9185801       8.082080    
  -5.709731      -1.370785       8.082080    
  -5.584579      -1.814541       8.082080    
  -5.424997      -2.247108       8.082080    
  -5.231967      -2.665821       8.082080    
  -5.006681      -3.068099       8.082080    
  -4.750527      -3.451461       8.082080    
  -4.465084      -3.813543       8.082080    
  -4.152112      -4.152113       8.082080    
  -3.813542      -4.465085       8.082080    
  -3.451459      -4.750528       8.082080    
  -3.068099      -5.006680       8.082080    
  -2.665819      -5.231968       8.082080    
  -2.247108      -5.424997       8.082080    
  -1.814538      -5.584580       8.082080    
  -1.370786      -5.709731       8.082080    
 -0.9185795      -5.799681       8.082080    
 -0.4607099      -5.853873       8.082080    
  7.0022594E-08  -5.871974       8.082080    
  0.4607100      -5.853873       8.082080    
  0.9185796      -5.799681       8.082080    
   1.370786      -5.709731       8.082080    
   1.814541      -5.584579       8.082080    
   2.247108      -5.424996       8.082080    
   2.665822      -5.231967       8.082080    
   3.068099      -5.006680       8.082080    
   3.451461      -4.750526       8.082080    
   3.813544      -4.465083       8.082080    
   4.152114      -4.152112       8.082080    
   4.465086      -3.813541       8.082080    
   4.750527      -3.451460       8.082080    
   5.006682      -3.068096       8.082080    
   5.231967      -2.665821       8.082080    
   5.424998      -2.247105       8.082080    
   5.584580      -1.814540       8.082080    
   5.709731      -1.370785       8.082080    
   5.799681     -0.9185786       8.082080    
   5.853873     -0.4607089       8.082080    
   5.871974      1.0266887E-06   8.082080    
   6.467985      0.5090415       7.596456    
   6.408108       1.014945       7.596456    
   6.308722       1.514590       7.596456    
   6.170441       2.004898       7.596456    
   5.994117       2.482845       7.596456    
   5.780838       2.945484       7.596456    
   5.531917       3.389963       7.596456    
   5.248891       3.813542       7.596456    
   4.933503       4.213610       7.596456    
   4.587698       4.587699       7.596456    
   4.213610       4.933503       7.596456    
   3.813542       5.248891       7.596456    
   3.389963       5.531917       7.596456    
   2.945483       5.780838       7.596456    
   2.482845       5.994117       7.596456    
   2.004898       6.170441       7.596456    
   1.514590       6.308722       7.596456    
   1.014945       6.408108       7.596456    
  0.5090414       6.467985       7.596456    
 -2.8359887E-07   6.487986       7.596456    
 -0.5090420       6.467985       7.596456    
  -1.014945       6.408107       7.596456    
  -1.514590       6.308722       7.596456    
  -2.004898       6.170441       7.596456    
  -2.482845       5.994117       7.596456    
  -2.945485       5.780837       7.596456    
  -3.389964       5.531917       7.596456    
  -3.813543       5.248890       7.596456    
  -4.213610       4.933503       7.596456    
  -4.587698       4.587698       7.596456    
  -4.933503       4.213610       7.596456    
  -5.248891       3.813542       7.596456    
  -5.531918       3.389963       7.596456    
  -5.780838       2.945483       7.596456    
  -5.994117       2.482844       7.596456    
  -6.170441       2.004898       7.596456    
  -6.308722       1.514590       7.596456    
  -6.408108       1.014944       7.596456    
  -6.467986      0.5090411       7.596456    
  -6.487986     -5.6719773E-07   7.596456    
  -6.467986     -0.5090407       7.596456    
  -6.408107      -1.014946       7.596456    
  -6.308722      -1.514590       7.596456    
  -6.170441      -2.004899       7.596456    
  -5.994117      -2.482845       7.596456    
  -5.780838      -2.945484       7.596456    
  -5.531917      -3.389963       7.596456    
  -5.248890      -3.813543       7.596456    
  -4.933503      -4.213610       7.596456    
  -4.587698      -4.587699       7.596456    
  -4.213609      -4.933504       7.596456    
  -3.813541      -5.248891       7.596456    
  -3.389964      -5.531916       7.596456    
  -2.945482      -5.780838       7.596456    
  -2.482846      -5.994117       7.596456    
  -2.004895      -6.170442       7.596456    
  -1.514591      -6.308722       7.596456    
  -1.014945      -6.408107       7.596456    
 -0.5090416      -6.467985       7.596456    
  7.7368455E-08  -6.487986       7.596456    
  0.5090417      -6.467985       7.596456    
   1.014945      -6.408107       7.596456    
   1.514591      -6.308722       7.596456    
   2.004899      -6.170441       7.596456    
   2.482846      -5.994116       7.596456    
   2.945485      -5.780837       7.596456    
   3.389965      -5.531916       7.596456    
   3.813544      -5.248889       7.596456    
   4.213611      -4.933502       7.596456    
   4.587700      -4.587697       7.596456    
   4.933505      -4.213608       7.596456    
   5.248890      -3.813543       7.596456    
   5.531919      -3.389961       7.596456    
   5.780838      -2.945484       7.596456    
   5.994119      -2.482842       7.596456    
   6.170441      -2.004898       7.596456    
   6.308722      -1.514590       7.596456    
   6.408108      -1.014944       7.596456    
   6.467986     -0.5090405       7.596456    
   6.487986      1.1343955E-06   7.596456    
   7.042221      0.5542349       7.063996    
   6.977028       1.105053       7.063996    
   6.868818       1.649058       7.063996    
   6.718260       2.182895       7.063996    
   6.526283       2.703275       7.063996    
   6.294068       3.206988       7.063996    
   6.023048       3.690929       7.063996    
   5.714894       4.152113       7.063996    
   5.371506       4.587699       7.063996    
   4.995000       4.995001       7.063996    
   4.587699       5.371506       7.063996    
   4.152113       5.714894       7.063996    
   3.690928       6.023048       7.063996    
   3.206987       6.294068       7.063996    
   2.703275       6.526283       7.063996    
   2.182895       6.718261       7.063996    
   1.649057       6.868818       7.063996    
   1.105053       6.977028       7.063996    
  0.5542347       7.042221       7.063996    
 -3.0877712E-07   7.063997       7.063996    
 -0.5542354       7.042221       7.063996    
  -1.105053       6.977027       7.063996    
  -1.649058       6.868818       7.063996    
  -2.182895       6.718260       7.063996    
  -2.703275       6.526282       7.063996    
  -3.206988       6.294067       7.063996    
  -3.690929       6.023047       7.063996    
  -4.152114       5.714893       7.063996    
  -4.587699       5.371506       7.063996    
  -4.995000       4.995000       7.063996    
  -5.371506       4.587699       7.063996    
  -5.714894       4.152113       7.063996    
  -6.023048       3.690928       7.063996    
  -6.294068       3.206987       7.063996    
  -6.526283       2.703274       7.063996    
  -6.718260       2.182895       7.063996    
  -6.868818       1.649058       7.063996    
  -6.977028       1.105052       7.063996    
  -7.042222      0.5542344       7.063996    
  -7.063997     -6.1755424E-07   7.063996    
  -7.042222     -0.5542340       7.063996    
  -6.977027      -1.105054       7.063996    
  -6.868818      -1.649057       7.063996    
  -6.718260      -2.182897       7.063996    
  -6.526283      -2.703275       7.063996    
  -6.294068      -3.206988       7.063996    
  -6.023048      -3.690929       7.063996    
  -5.714893      -4.152114       7.063996    
  -5.371505      -4.587700       7.063996    
  -4.994999      -4.995001       7.063996    
  -4.587698      -5.371506       7.063996    
  -4.152112      -5.714895       7.063996    
  -3.690930      -6.023047       7.063996    
  -3.206986      -6.294068       7.063996    
  -2.703276      -6.526282       7.063996    
  -2.182893      -6.718261       7.063996    
  -1.649058      -6.868818       7.063996    
  -1.105053      -6.977027       7.063996    
 -0.5542350      -7.042221       7.063996    
  8.4237321E-08  -7.063997       7.063996    
  0.5542351      -7.042221       7.063996    
   1.105053      -6.977027       7.063996    
   1.649058      -6.868818       7.063996    
   2.182896      -6.718260       7.063996    
   2.703276      -6.526282       7.063996    
   3.206989      -6.294067       7.063996    
   3.690930      -6.023047       7.063996    
   4.152115      -5.714893       7.063996    
   4.587701      -5.371504       7.063996    
   4.995002      -4.994998       7.063996    
   5.371507      -4.587698       7.063996    
   5.714893      -4.152114       7.063996    
   6.023049      -3.690926       7.063996    
   6.294068      -3.206988       7.063996    
   6.526284      -2.703272       7.063996    
   6.718261      -2.182895       7.063996    
   6.868818      -1.649057       7.063996    
   6.977028      -1.105052       7.063996    
   7.042222     -0.5542338       7.063996    
   7.063997      1.2351085E-06   7.063996    
   7.573039      0.5960111       6.487986    
   7.502931       1.188348       6.487986    
   7.386565       1.773358       6.487986    
   7.224659       2.347434       6.487986    
   7.018210       2.907038       6.487986    
   6.768492       3.448719       6.487986    
   6.477044       3.969138       6.487986    
   6.145662       4.465085       6.487986    
   5.776391       4.933504       6.487986    
   5.371505       5.371506       6.487986    
   4.933504       5.776391       6.487986    
   4.465085       6.145662       6.487986    
   3.969137       6.477044       6.487986    
   3.448718       6.768492       6.487986    
   2.907038       7.018210       6.487986    
   2.347434       7.224659       6.487986    
   1.773357       7.386565       6.487986    
   1.188348       7.502931       6.487986    
  0.5960110       7.573039       6.487986    
 -3.3205163E-07   7.596456       6.487986    
 -0.5960116       7.573039       6.487986    
  -1.188348       7.502931       6.487986    
  -1.773358       7.386565       6.487986    
  -2.347434       7.224659       6.487986    
  -2.907038       7.018210       6.487986    
  -3.448720       6.768491       6.487986    
  -3.969138       6.477043       6.487986    
  -4.465086       6.145661       6.487986    
  -4.933504       5.776391       6.487986    
  -5.371505       5.371505       6.487986    
  -5.776391       4.933504       6.487986    
  -6.145662       4.465085       6.487986    
  -6.477044       3.969137       6.487986    
  -6.768492       3.448718       6.487986    
  -7.018210       2.907037       6.487986    
  -7.224659       2.347434       6.487986    
  -7.386565       1.773358       6.487986    
  -7.502931       1.188347       6.487986    
  -7.573039      0.5960106       6.487986    
  -7.596456     -6.6410325E-07   6.487986    
  -7.573039     -0.5960102       6.487986    
  -7.502931      -1.188349       6.487986    
  -7.386565      -1.773357       6.487986    
  -7.224659      -2.347436       6.487986    
  -7.018210      -2.907038       6.487986    
  -6.768492      -3.448719       6.487986    
  -6.477044      -3.969138       6.487986    
  -6.145662      -4.465086       6.487986    
  -5.776390      -4.933505       6.487986    
  -5.371505      -5.371506       6.487986    
  -4.933503      -5.776392       6.487986    
  -4.465084      -6.145663       6.487986    
  -3.969139      -6.477043       6.487986    
  -3.448717      -6.768493       6.487986    
  -2.907039      -7.018210       6.487986    
  -2.347431      -7.224659       6.487986    
  -1.773358      -7.386565       6.487986    
  -1.188348      -7.502931       6.487986    
 -0.5960112      -7.573039       6.487986    
  9.0586830E-08  -7.596456       6.487986    
  0.5960114      -7.573039       6.487986    
   1.188348      -7.502931       6.487986    
   1.773358      -7.386565       6.487986    
   2.347435      -7.224659       6.487986    
   2.907039      -7.018209       6.487986    
   3.448720      -6.768491       6.487986    
   3.969139      -6.477043       6.487986    
   4.465086      -6.145661       6.487986    
   4.933505      -5.776389       6.487986    
   5.371507      -5.371504       6.487986    
   5.776392      -4.933502       6.487986    
   6.145662      -4.465085       6.487986    
   6.477045      -3.969135       6.487986    
   6.768492      -3.448719       6.487986    
   7.018212      -2.907034       6.487986    
   7.224659      -2.347434       6.487986    
   7.386565      -1.773357       6.487986    
   7.502931      -1.188347       6.487986    
   7.573039     -0.5960100       6.487986    
   7.596456      1.3282065E-06   6.487986    
   8.057165      0.6341127       5.871974    
   7.982576       1.264316       5.871974    
   7.858771       1.886724       5.871974    
   7.686514       2.497500       5.871974    
   7.466868       3.092878       5.871974    
   7.201186       3.669188       5.871974    
   6.891106       4.222876       5.871974    
   6.538540       4.750527       5.871974    
   6.145662       5.248891       5.871974    
   5.714893       5.714894       5.871974    
   5.248891       6.145662       5.871974    
   4.750527       6.538540       5.871974    
   4.222875       6.891106       5.871974    
   3.669187       7.201186       5.871974    
   3.092878       7.466868       5.871974    
   2.497500       7.686515       5.871974    
   1.886724       7.858771       5.871974    
   1.264316       7.982576       5.871974    
  0.6341126       8.057165       5.871974    
 -3.5327892E-07   8.082080       5.871974    
 -0.6341133       8.057165       5.871974    
  -1.264317       7.982576       5.871974    
  -1.886724       7.858771       5.871974    
  -2.497500       7.686514       5.871974    
  -3.092879       7.466868       5.871974    
  -3.669188       7.201186       5.871974    
  -4.222876       6.891105       5.871974    
  -4.750529       6.538539       5.871974    
  -5.248891       6.145662       5.871974    
  -5.714893       5.714893       5.871974    
  -6.145662       5.248891       5.871974    
  -6.538540       4.750527       5.871974    
